# .PCD v0.7 - Point Cloud Data file format
VERSION 0.7
FIELDS x y z rgba
SIZE 4 4 4 4
TYPE F F F U
COUNT 1 1 1 1
WIDTH 1266
HEIGHT 1
VIEWPOINT 0 0 0 1 0 0 0
POINTS 1266
DATA ascii
11.414165 31.896837 25.387451 3879465
11.401537 31.90604 25.355145 5787454
11.401537 31.90604 25.358498 4340271
11.401537 31.90604 25.363068 5853249
11.401537 31.90604 25.375565 3879465
11.401537 31.90604 25.382881 5063479
11.426792 31.887634 25.353008 4603441
11.426792 31.887634 25.375259 3747879
11.426792 31.887634 25.38044 4998201
11.401537 31.90604 25.405132 3419940
11.401537 31.90604 25.426769 4011053
11.401537 31.90604 25.429821 4273965
11.426792 31.887634 25.393852 5195065
11.426792 31.887634 25.403759 4339758
11.426792 31.887634 25.428448 3945517
12.396521 33.191666 25.891289 9540735
12.10738 32.397003 25.281231 5003343
12.10738 32.397003 25.296619 3620927
11.517323 31.666979 25.184151 1382684
12.396521 33.191666 25.910793 3489088
11.141288 33.565132 25.573078 8157277
11.141288 33.565132 25.584049 7235923
11.141288 33.565132 25.587097 7432532
11.152845 33.634048 25.523392 6315338
11.554134 31.717489 25.174397 2435632
11.554134 31.717489 25.186893 1316889
11.517323 31.666979 25.196342 1513752
11.517323 31.666979 25.220116 1775898
11.517323 31.666979 25.230175 1316889
11.517323 31.666979 25.242062 2300184
11.517323 31.666979 25.254559 2432023
11.517323 31.666979 25.264313 4339505
11.554134 31.717489 25.203352 1908514
11.554134 31.717489 25.218899 1775898
11.554134 31.717489 25.223469 2567216
11.554134 31.717489 25.24968 2764595
11.554134 31.717489 25.264923 4142128
12.433332 33.242176 25.867207 3621187
11.490998 31.763504 25.200916 2632231
11.490998 31.763504 25.204268 4143411
11.490998 31.763504 25.225906 2829090
11.490998 31.763504 25.229259 5457208
11.490998 31.763504 25.232002 1645852
11.490998 31.763504 25.240841 1580572
11.490998 31.763504 25.249985 5588278
11.490998 31.763504 25.253643 5457462
11.490998 31.763504 25.260044 2500386
11.503626 31.754301 25.246025 3290681
11.478371 31.772705 25.201523 2106657
11.478371 31.772705 25.204266 2435622
11.478371 31.772705 25.207008 5128758
11.478371 31.772705 25.213413 5326137
11.478371 31.772705 25.233528 5720634
11.478371 31.772705 25.237488 5589048
11.478371 31.772705 25.255779 5523254
11.478371 31.772705 25.26157 5391668
11.52888 31.735895 25.248463 4602163
11.540438 31.80481 25.241451 3418405
11.592016 31.68988 25.177139 1579030
11.592017 31.68988 25.201218 2894636
11.592016 31.68988 25.202744 2830388
12.540557 33.628056 25.745895 3554110
11.592016 31.68988 25.207619 1514268
11.592016 31.68988 25.217678 1448475
11.592016 31.68988 25.229565 1382939
11.566761 31.708286 25.240234 1513752
11.592016 31.68988 25.236271 1907999
11.592016 31.68988 25.249681 1382424
12.512093 33.880814 25.609344 2699055
11.592016 31.68988 25.253643 1447705
11.592016 31.68988 25.262482 1513498
11.592016 31.68988 25.269493 1578519
11.604643 31.680677 25.201218 2368289
11.604644 31.680677 25.204268 2500392
11.604643 31.680677 25.209755 5194308
11.604644 31.680677 25.214121 3092021
11.604643 31.680677 25.217373 3680299
11.604643 31.680677 25.226822 3159355
11.604643 31.680677 25.234898 4144440
11.604644 31.680677 25.239548 3617844
11.604643 31.680677 25.246326 3223596
11.604643 31.680677 25.249531 4009776
11.604643 31.680677 25.260351 3159354
11.604643 31.680677 25.265228 12821396
11.590946 31.767998 25.222858 1513498
11.590946 31.767998 25.231697 1382684
11.590946 31.767998 25.234444 1513241
11.590946 31.767998 25.241451 1316119
11.590946 31.767998 25.24831 1644312
11.590946 31.767998 25.256084 1512726
11.603573 31.758793 25.199694 2039842
11.603573 31.758795 25.208839 1382944
11.6162 31.749592 25.203505 1842464
11.6162 31.749592 25.210361 2626581
11.603573 31.758795 25.213104 1251614
11.603573 31.758795 25.219355 1645342
11.603573 31.758795 25.222401 1185821
11.603573 31.758795 25.229717 1185564
11.6162 31.749592 25.218899 1252126
11.628829 31.740391 25.20068 3421491
11.628829 31.740389 25.203453 2106662
11.628828 31.740389 25.207314 3547681
11.603573 31.758795 25.235966 1317151
11.603573 31.758795 25.249378 1185562
11.6162 31.749592 25.240234 1251098
11.6162 31.749592 25.242672 1251355
11.603573 31.758795 25.253948 1382682
11.603573 31.758795 25.260654 1382682
11.603573 31.758795 25.271626 1513498
11.6162 31.749592 25.267666 1513498
11.504696 31.676182 25.290527 2961974
11.517323 31.666979 25.296013 1316887
11.517323 31.666979 25.343559 1381912
11.490998 31.763504 25.275589 5456692
11.490998 31.763504 25.280163 5654071
11.490998 31.763504 25.283211 1514266
11.490998 31.763504 25.287781 1448473
11.490998 31.763504 25.292961 1382680
11.490998 31.763504 25.302872 5456438
11.490998 31.763504 25.324509 5653562
11.490998 31.763504 25.328018 5653562
11.490998 31.763504 25.333504 1448475
11.490998 31.763504 25.341122 1317402
11.490998 31.763504 25.348434 3288103
11.478371 31.772705 25.284275 5588279
11.478371 31.772705 25.288391 5654073
11.478371 31.772705 25.306072 5259831
11.478371 31.772705 25.311253 5325624
11.478371 31.772705 25.32954 5127992
11.478371 31.772705 25.333958 5128248
11.478371 31.772705 25.350266 4996919
11.490998 31.763504 25.352398 5194040
11.490998 31.763504 25.370995 5062454
11.490998 31.763504 25.374191 4930869
11.503626 31.754301 25.384708 1316889
11.490998 31.763504 25.395527 2959910
11.490998 31.763504 25.399342 4602931
11.490998 31.763504 25.405128 1316889
11.490998 31.763504 25.423216 3682088
11.478371 31.772705 25.356056 5062714
11.478371 31.772705 25.36124 5194040
11.478371 31.772705 25.38105 4340020
11.478371 31.772705 25.38349 4273711
11.478371 31.772705 25.406349 3813674
11.466171 34.488419 25.220421 6973523
11.453545 34.49762 25.236881 7039316
11.453545 34.49762 25.26096 7105366
11.466171 34.488419 25.242977 7170902
11.466171 34.488419 25.256691 7171159
11.466171 34.488419 25.26675 7368538
11.417802 34.368992 25.278944 5989729
11.417802 34.368996 25.291744 7237722
11.417802 34.368996 25.292961 7697757
11.417802 34.368996 25.301193 7303515
11.417802 34.368996 25.303936 7500894
11.417802 34.368996 25.308811 7698273
11.417802 34.368996 25.318874 7764066
11.417802 34.368996 25.326187 7632480
11.478371 31.772705 25.410919 4010540
11.417802 34.368996 25.329235 7566687
11.417802 34.368996 25.344017 7764066
11.417802 34.368996 25.350571 7829859
11.478371 31.772705 25.429211 3879467
11.540438 31.80481 25.389889 1381912
11.566761 31.708286 25.273457 1774871
11.592016 31.68988 25.274673 1512726
11.592016 31.68988 25.278942 1710359
11.579389 31.699083 25.305763 2431518
11.592016 31.68988 25.293266 1775123
11.592016 31.68988 25.300888 2037525
11.592016 31.68988 25.311558 2497562
11.592016 31.68988 25.320396 3024158
11.592016 31.68988 25.324203 3287331
11.604643 31.680677 25.273914 5853259
11.604643 31.680677 25.281078 12821396
11.604643 31.680677 25.285648 3356734
11.604644 31.680677 25.290833 4408123
11.604643 31.680677 25.300583 3882298
11.604644 31.680677 25.308609 8813676
11.604643 31.680677 25.31369 12890515
11.604643 31.680677 25.325577 3751232
11.604643 31.680677 25.333805 3685184
11.604643 31.680677 25.339291 11907218
11.604644 31.680677 25.343866 7631196
11.604643 31.680677 25.348438 4277312
11.604643 31.680677 25.355448 4145727
11.604643 31.680677 25.361546 12236943
11.604643 31.680677 25.369774 15197126
11.604643 31.680677 25.37587 12236943
11.604643 31.680677 25.381355 3882818
11.604643 31.680677 25.399645 4737857
11.604643 31.680677 25.404825 9145981
11.604643 31.680677 25.408636 4607544
11.590946 31.767998 25.284122 1906455
11.590946 31.767998 25.291439 1840662
11.590946 31.767998 25.298145 3418659
11.590946 31.767998 25.306072 2694682
11.603573 31.758795 25.290829 1578005
11.6162 31.749592 25.289917 1643798
11.603573 31.758795 25.296467 1971992
11.603573 31.758795 25.302719 2300443
11.6162 31.749592 25.292049 1643798
11.603573 31.758795 25.320396 2892323
11.6162 31.749592 25.316128 2234654
11.603573 31.758795 25.334415 3023647
11.6162 31.749592 25.337769 4602163
11.489928 31.841621 25.201675 3025702
11.489928 31.841621 25.210361 5194298
11.489928 31.841621 25.216152 5260090
11.489928 31.841621 25.222252 5194298
11.515182 31.823215 25.222858 3683632
11.502556 31.832417 25.20122 3681834
11.502556 31.832417 25.206703 4734516
11.502556 31.832417 25.210056 4208173
11.502556 31.832417 25.212799 1317400
11.502556 31.832417 25.217983 4537138
11.502556 31.832417 25.222706 3747879
11.502556 31.832417 25.231396 5523514
11.489928 31.841621 25.24054 5391417
11.489928 31.841621 25.244499 5457210
11.489928 31.841621 25.26096 5588794
11.489928 31.841621 25.268581 5654587
11.515182 31.823215 25.240841 2631459
11.515182 31.823215 25.257607 2433310
11.502556 31.832417 25.232307 5391930
11.502556 31.832417 25.247246 5720634
11.502556 31.832415 25.256186 4340272
11.502556 31.832417 25.26096 2501676
11.502556 31.832417 25.264616 3551785
11.539368 31.882927 25.203655 2895654
11.539368 31.882927 25.231697 1514781
11.514112 31.901333 25.21402 5456179
11.514112 31.901333 25.237183 5851452
11.514112 31.901333 25.247852 5588020
11.514112 31.901333 25.262482 5719351
11.52674 31.892128 25.200611 2304034
11.52674 31.892126 25.204569 4536883
11.52674 31.892128 25.207619 3224617
11.52674 31.892128 25.213413 5325884
11.52674 31.892128 25.229565 5457210
11.52674 31.892128 25.233528 1645074
11.52674 31.892126 25.238403 2959391
11.52674 31.892128 25.246326 5851452
11.52674 31.892128 25.253799 3814445
11.52674 31.892128 25.265684 3879726
11.538298 31.961044 25.201218 3288871
11.538298 31.961044 25.203352 3288614
11.538298 31.961044 25.211582 5061936
11.550924 31.951839 25.200611 2961445
11.550924 31.951839 25.203657 4732975
11.538298 31.961044 25.212494 3750189
11.538299 31.961044 25.224993 5522228
11.550924 31.951839 25.214478 4208941
11.550924 31.951839 25.230328 2500898
11.538298 31.961044 25.236729 4077098
11.538298 31.961044 25.239014 5785399
10.628066 32.701771 25.408787 6382663
11.538299 31.961044 25.249174 4471599
11.550924 31.951839 25.238407 5653813
11.550924 31.951839 25.243587 2695706
11.538298 31.961044 25.262177 5785399
11.550924 31.951839 25.26157 3813926
11.627758 31.818506 25.216763 1316889
11.627758 31.818506 25.236271 1184276
11.627758 31.818506 25.243282 1184276
11.627758 31.818506 25.265837 1381653
11.563552 31.94264 25.204674 3419430
11.563552 31.942638 25.223469 2238241
11.563552 31.942638 25.227737 1514769
11.563552 31.942638 25.258217 2300697
11.563552 31.942638 25.270714 2303268
11.489928 31.841621 25.272541 5851452
11.489928 31.841621 25.291744 5719866
11.489928 31.841621 25.295097 5522487
11.489928 31.841621 25.310947 5654587
11.502556 31.832417 25.273151 5719864
11.502556 31.832417 25.280315 5719865
11.502556 31.832417 25.296925 5785659
11.502556 31.832417 25.305763 5456694
11.502556 31.832417 25.308811 5719866
11.489928 31.841621 25.318567 5654588
11.489928 31.841621 25.34082 5589052
11.489928 31.841621 25.351181 5523512
11.502556 31.832417 25.314911 3617323
11.502556 31.832417 25.322224 5325624
11.502556 31.832417 25.329845 5391674
11.502556 31.832417 25.346607 5062712
11.539368 31.882927 25.280773 1449756
11.539368 31.882927 25.335026 1448727
11.539368 31.882927 25.342342 1711129
11.551994 31.873722 25.349808 1382423
11.489928 31.841621 25.354229 5457721
11.489928 31.841621 25.360172 5260600
11.489928 31.841621 25.38105 4537648
11.515182 31.823215 25.363678 1579545
11.502556 31.832417 25.355295 4865845
11.502556 31.832417 25.359106 1513750
11.502556 31.832417 25.365505 4997686
11.502556 31.832417 25.369469 4405811
11.502556 31.832417 25.380136 4076843
11.489928 31.841621 25.392937 4274989
11.489928 31.841621 25.403912 3748647
11.489928 31.841621 25.429211 3157284
11.515182 31.823215 25.397816 1185563
11.515182 31.823215 25.420982 1382684
11.502556 31.832417 25.394463 3814187
11.502556 31.832417 25.403606 3748393
11.502556 31.832417 25.413818 2171166
11.502556 31.832417 25.420372 3354152
11.502556 31.832417 25.428753 2959393
11.477301 31.850822 25.370689 4932660
11.477301 31.850822 25.390499 4274989
11.477301 31.850822 25.416103 2828319
11.52781 31.814013 25.368553 1185816
11.52781 31.814013 25.418846 1382684
11.488858 31.919739 25.346607 5918525
11.488858 31.919739 25.349049 5984318
11.514112 31.901333 25.33411 5852220
11.514112 31.901333 25.344778 5325621
11.501486 31.910534 25.346607 5654841
11.501486 31.910534 25.347523 5787454
11.52674 31.892128 25.278942 5851452
11.52674 31.892128 25.285648 1906455
11.52674 31.892128 25.290222 5654073
11.52674 31.892128 25.295403 5851198
11.52674 31.892128 25.305157 5851198
11.52674 31.892128 25.308205 1974303
11.52674 31.892128 25.315216 5654073
11.52674 31.892128 25.330757 6048831
11.52674 31.892128 25.335941 5852477
11.52674 31.892128 25.342342 5918013
11.538298 31.961044 25.274979 5653814
11.538298 31.961044 25.277115 5588278
11.538298 31.961044 25.289307 5587765
11.550924 31.951839 25.28199 2434854
11.550924 31.951839 25.288391 5588278
11.538298 31.961044 25.295708 5653811
11.538298 31.961044 25.300583 5719351
11.550924 31.951839 25.295403 2303268
11.550924 31.951839 25.301498 5719866
11.538299 31.961044 25.325171 5785143
11.550924 31.951839 25.312927 5719350
11.538298 31.961044 25.335636 5785143
11.538299 31.961044 25.344398 5522485
11.550924 31.951839 25.335331 5456694
11.550924 31.951839 25.338684 2368800
11.550924 31.951839 25.353924 1184535
11.564622 31.864521 25.34996 1448475
11.627758 31.818506 25.285954 1446415
11.627758 31.818506 25.293877 1446414
11.627758 31.818506 25.315062 2103574
11.564622 31.864521 25.356361 1251355
11.588806 31.924232 25.344627 2040093
11.563552 31.942638 25.289307 5523255
11.563552 31.942638 25.31369 5851452
11.563552 31.942638 25.328625 2368547
11.563552 31.942638 25.346304 2894373
11.563552 31.942638 25.347523 2894116
11.57618 31.933434 25.344475 1711129
11.57618 31.933434 25.347523 2960423
11.601434 31.91503 25.346304 1777439
11.601434 31.91503 25.347725 2697765
11.61406 31.905825 25.344271 2236965
11.188587 33.762672 25.535889 3816495
11.047546 34.020142 25.279247 6578517
11.047546 34.020142 25.291439 6644564
11.047546 34.020142 25.298145 7828581
11.047546 34.020142 25.303936 6710359
11.047546 34.020142 25.308811 6381395
11.047546 34.020142 25.318874 6448215
11.047546 34.020142 25.323442 6842201
11.047546 34.020142 25.328625 6118222
11.047546 34.020142 25.340816 6514008
11.047546 34.020142 25.345695 6051916
11.034919 34.029343 25.355446 6184016
11.034919 34.029343 25.371449 6184015
11.034919 34.029343 25.381355 6118223
11.034919 34.029343 25.394157 6315601
11.034919 34.029343 25.405739 6249809
11.034919 34.029343 25.419151 6644567
11.034919 34.029343 25.4286 6776152
10.628066 32.701771 25.418846 6251075
10.628066 32.701771 25.421894 6317123
10.628066 32.701771 25.429821 6386272
10.640694 32.69257 25.385166 6317646
10.640694 32.69257 25.395071 6250565
10.640694 32.69257 25.414577 6252370
10.640694 32.69257 25.430428 6316868
10.652251 32.761482 25.359409 7502174
10.664878 32.752281 25.353924 6250561
10.664878 32.752281 25.362152 5987907
10.664878 32.752281 25.377697 6381893
11.367722 32.549389 25.497791 2631720
11.380349 32.540188 25.490047 5721668
11.392976 32.530979 25.490398 4801598
10.589114 32.807499 25.168606 9809024
10.589114 32.807499 25.175312 9018999
12.292078 34.427849 25.868427 3683368
12.279451 34.437054 25.888241 4208685
10.589114 32.807499 25.19939 10205063
10.589114 32.807499 25.216763 9150583
12.292078 34.427849 25.880314 4077612
11.047546 34.020142 25.353313 6051916
11.047546 34.020142 25.36002 5920843
11.047546 34.020142 25.364285 6578522
11.047546 34.020142 25.373228 6775639
11.047546 34.020142 25.390194 6446685
11.047546 34.020142 25.395073 6249808
10.572421 32.200962 25.845871 16711668
10.572421 32.200962 25.858673 11583918
11.047546 34.020142 25.399948 6381394
11.047546 34.020142 25.407875 6118992
11.047546 34.020142 25.414272 6316371
11.047546 34.020142 25.420523 6644564
11.047546 34.020142 25.426163 6118992
11.148564 33.946518 25.288696 6647629
11.148564 33.946518 25.315823 6711881
11.148564 33.946518 25.336552 6710598
11.148564 33.946518 25.362457 6382144
11.148564 33.946518 25.386539 7238225
10.572421 32.200962 25.87056 15662058
10.585049 32.191757 25.839165 8420464
10.585049 32.191757 25.843739 8881533
10.585049 32.191757 25.849529 2170393
10.585049 32.191757 25.8666 7173220
10.585049 32.191757 25.879704 1973528
10.585049 32.191757 25.902565 1908246
10.585049 32.191757 25.910488 6583650
10.521913 32.237774 25.763882 16777210
10.521913 32.237774 25.767231 16777210
10.534539 32.228569 25.753212 16055802
10.521913 32.237774 25.789787 16777204
10.534539 32.228569 25.780188 9345421
10.547166 32.219364 25.753515 11780527
10.652251 32.761482 25.231396 3295066
11.148564 33.946518 25.41214 5461044
11.110682 33.974125 25.280464 8883058
11.188587 33.762672 25.551739 5592393
11.188587 33.762672 25.576427 5065535
11.175961 33.771873 25.526443 5789258
11.175961 33.771873 25.534977 4539191
11.110682 33.974125 25.301804 16776930
11.110682 33.974125 25.327713 14868163
11.123309 33.964924 25.293266 9212788
11.123309 33.964924 25.303936 9212788
11.123309 33.964924 25.317043 9801840
11.123309 33.964924 25.341427 7302217
11.123309 33.964924 25.350571 10657660
11.110682 33.974125 25.353008 14604983
11.110682 33.974125 25.375565 13553070
11.175961 33.771873 25.552654 5460293
11.163333 33.781078 25.578564 5262401
11.110682 33.974125 25.402386 15129793
11.175961 33.771873 25.576427 4802363
11.110682 33.974125 25.424332 7433041
11.123309 33.964924 25.363373 7763797
11.123309 33.964924 25.388672 7236175
11.123309 33.964924 25.401169 6579013
11.123309 33.964924 25.414577 6709059
11.071731 34.079857 25.223339 4343619
11.071731 34.079853 25.228752 6183763
11.071731 34.079853 25.250139 6052691
12.538417 33.784286 25.710236 2698550
12.538417 33.784286 25.731571 4083493
12.551044 33.775085 25.746201 2764597
12.379614 33.513336 25.540157 5131325
12.379614 33.513336 25.54351 9351794
12.379614 33.513336 25.578865 4943941
12.002937 33.63319 25.463043 4009513
11.071731 34.079853 25.270103 5921873
11.059103 34.089054 25.225145 5593936
11.046476 34.098259 25.238407 5461322
12.292078 34.427849 25.88641 3814187
12.292078 34.427849 25.891289 4143405
11.046476 34.098259 25.24968 3618363
12.379614 33.513336 25.584351 4209972
12.404869 33.494934 25.552654 10272120
11.512828 32.907658 25.323139 1710616
12.537348 33.862408 25.601116 2304046
12.537348 33.862408 25.611481 2369839
12.537348 33.862408 25.62154 5199185
12.292078 34.427849 25.891895 3814954
11.046476 34.098259 25.261723 5724237
10.999605 32.044296 25.350266 4998199
10.999605 32.044296 25.353773 4144440
10.999605 32.044296 25.361851 6445384
10.999605 32.044296 25.36581 3683371
11.012233 32.035095 25.359104 4274478
11.012233 32.035095 25.366726 5984063
11.012233 32.035095 25.370079 3748647
10.999605 32.044296 25.379986 5130039
11.012233 32.035095 25.38044 4931377
11.02486 32.02589 25.354126 5523516
11.02486 32.02589 25.364134 5129529
11.02486 32.02589 25.370689 3682601
11.02486 32.02589 25.378002 5194549
10.999605 32.044296 25.401474 3814189
10.999605 32.044296 25.406044 4472368
11.012233 32.035095 25.410618 3814189
11.012233 32.035095 25.428295 4209972
11.02486 32.02589 25.400864 4603182
11.02486 32.02589 25.418236 4142637
11.02486 32.02589 25.426468 4274991
11.062742 31.998283 25.366421 5326400
11.062742 31.998283 25.379833 5194814
11.062742 31.998283 25.387756 3945773
11.075369 31.98908 25.384708 4011565
11.062742 31.998283 25.398422 3091232
11.062742 31.998283 25.404217 4800309
11.075369 31.98908 25.406044 4143150
11.075369 31.98908 25.411224 3879467
11.062742 31.998283 25.429821 3748647
11.075369 31.98908 25.430122 2893085
11.037487 32.016689 25.354839 6378572
11.037487 32.016689 25.357277 4537650
11.050115 32.007484 25.358799 6115402
11.050115 32.007484 25.364285 5655365
11.037487 32.016689 25.373432 4471603
11.037487 32.016689 25.378613 3879978
11.037487 32.016689 25.387451 3748394
11.037487 32.016689 25.394615 4076584
11.037487 32.016689 25.408787 3353634
11.050115 32.007484 25.402691 4800309
11.037487 32.016689 25.41885 4142634
11.037487 32.016689 25.425552 3682599
10.998536 32.122417 25.346302 7167565
10.998536 32.122414 25.347725 5393474
11.011163 32.113216 25.346605 4997940
11.011163 32.113216 25.348639 3881783
11.02379 32.104012 25.344475 6379593
11.023789 32.104008 25.348845 2961199
11.061672 32.076401 25.345541 3749169
11.061674 32.076408 25.349087 3157034
11.074299 32.0672 25.345896 3682858
11.074297 32.0672 25.348783 3683122
11.036416 32.094807 25.345083 3683631
11.036419 32.094807 25.348066 4209458
11.049045 32.085606 25.346149 5064511
11.049044 32.085606 25.349199 3485999
10.998536 32.122417 25.353008 4866100
11.011163 32.113213 25.354229 4800307
11.061672 32.076401 25.353313 4603443
11.061672 32.076401 25.358799 4603443
11.112182 32.039585 25.345617 5064253
11.112182 32.039585 25.348742 5129273
11.124808 32.030392 25.348816 5589567
11.137436 32.021183 25.345085 5260603
11.137436 32.021183 25.348436 5852738
11.150063 32.011982 25.336857 3747879
11.150063 32.011982 25.345085 6049602
11.150063 32.011982 25.348335 6247750
11.087996 31.979877 25.405434 4143405
11.087996 31.979877 25.430428 4273966
11.112181 32.039589 25.356361 4603443
11.112181 32.039589 25.358498 5721922
11.112181 32.039589 25.369774 5590851
11.112181 32.039589 25.378613 3879467
11.124808 32.030388 25.352093 5392957
11.124808 32.030388 25.35804 4208942
11.124808 32.030388 25.36581 5721922
11.124808 32.030388 25.385624 4275757
11.137436 32.021183 25.354534 6051141
11.137436 32.021183 25.365049 4800821
11.150063 32.011982 25.354431 4406321
11.150063 32.011982 25.357277 6314313
11.150063 32.011982 25.364285 5985605
11.137436 32.021183 25.377392 4275757
11.150063 32.011982 25.374144 5064505
11.150063 32.011982 25.380135 3419429
11.137436 32.021183 25.394764 4076333
11.137436 32.021183 25.398422 4275759
11.150063 32.011982 25.40391 4406322
11.137436 32.021183 25.424637 4143405
11.150063 32.011982 25.413818 3682854
11.150063 32.011982 25.424942 4208684
11.086928 32.057991 25.348234 3616814
11.099555 32.048794 25.345795 5129788
11.099554 32.048794 25.349527 4800310
11.111111 32.117706 25.333199 4931895
11.111111 32.117706 25.344931 3683120
11.111113 32.117702 25.347458 3749171
11.123738 32.108505 25.346607 5589056
11.123738 32.108505 25.34915 3552306
11.136367 32.0993 25.345999 5786687
11.136367 32.0993 25.348402 3881012
11.148993 32.090099 25.341122 3223849
11.148993 32.090099 25.344856 6379082
11.148991 32.090096 25.348473 4932667
11.086926 32.057995 25.357887 4340016
11.086926 32.057995 25.370995 3880233
11.099554 32.048794 25.355143 4931640
11.099554 32.048794 25.366421 4076844
11.148993 32.090099 25.362915 3091493
10.997466 32.200535 25.346149 6907217
10.997466 32.200535 25.348436 5130561
11.010093 32.19133 25.334721 4273195
11.010093 32.19133 25.346075 6115908
11.01009 32.191338 25.349253 5524546
11.02272 32.182129 25.348286 7430734
11.035348 32.17292 25.345797 5655874
11.035349 32.17292 25.349701 4866616
11.047975 32.163723 25.34549 4209718
11.047975 32.163719 25.347931 5523773
11.060602 32.154518 25.348743 3158840
11.073228 32.145321 25.34549 4012851
11.073228 32.145321 25.348917 4538682
10.997466 32.200535 25.352398 6775891
10.997466 32.200535 25.358498 3158840
11.010093 32.19133 25.355751 7497296
11.010093 32.19133 25.358498 4932147
11.02272 32.182129 25.353619 3748400
10.997466 32.200535 25.405128 2960946
10.997466 32.200535 25.430733 2895153
11.034278 32.251041 25.378918 2961461
11.046905 32.24184 25.361546 2961461
11.046905 32.24184 25.370995 3026739
11.046905 32.24184 25.389889 2697258
11.07216 32.223434 25.36124 3158325
11.07216 32.223434 25.362762 3945000
11.07216 32.223434 25.37587 3026739
11.059532 32.232635 25.37587 2960946
11.046905 32.24184 25.414577 2895153
11.07216 32.223434 25.396595 3026739
11.07216 32.223434 25.421894 2764337
11.059532 32.232635 25.399342 2960946
11.059532 32.232635 25.416103 5459010
11.059532 32.232635 25.425858 2895153
11.085856 32.136112 25.348286 2631978
11.098482 32.126915 25.348021 3552050
11.110041 32.195824 25.350418 5196349
11.135296 32.177418 25.347828 2894114
11.122668 32.186623 25.349049 2894884
11.147923 32.168217 25.345695 3945260
11.147923 32.168217 25.350113 3223857
11.085856 32.136112 25.352093 4537137
11.110041 32.195824 25.355145 2829875
11.110041 32.195824 25.369011 4999230
11.110041 32.195824 25.390194 2632751
11.110041 32.195824 25.41214 2566958
11.135296 32.177418 25.359104 2171169
11.147923 32.168217 25.353771 5065540
11.135296 32.177418 25.411839 2039070
11.084786 32.21423 25.355751 3093047
11.084786 32.21423 25.365505 3026739
11.084786 32.21423 25.385624 3026739
11.084786 32.21423 25.390804 2630691
11.097414 32.205029 25.408485 2764337
11.146852 32.246334 25.39172 7234124
11.162689 32.002777 25.349045 6773065
11.175318 31.993576 25.346607 7628114
11.175317 31.993576 25.348587 6049601
11.187944 31.984373 25.345541 6576198
11.187944 31.984373 25.350113 5722174
11.200571 31.97517 25.348587 6510663
11.213198 31.965969 25.349731 5919296
11.21213 32.044083 25.343563 6773832
11.212129 32.044079 25.347704 7562574
11.224755 32.034882 25.345083 6444869
11.224757 32.034882 25.348402 7101769
11.162689 32.002777 25.36459 6117445
11.175317 31.993576 25.354736 5919299
11.162689 32.002777 25.379223 4934967
11.175318 31.993576 25.372822 4933685
11.175317 31.993576 25.379629 4143662
11.187944 31.984373 25.353008 6116931
11.187944 31.984373 25.360325 6446409
11.187944 31.984373 25.362915 4273711
11.187944 31.984373 25.369621 4603954
11.187944 31.984373 25.377087 3487005
11.187944 31.984373 25.383492 3618854
11.175318 31.993576 25.393547 4736308
11.175318 31.993576 25.417625 4209196
11.175318 31.993576 25.425247 4209196
11.175318 31.993576 25.430428 4208172
11.187944 31.984373 25.393852 4473136
11.187944 31.984373 25.399948 3616806
11.187944 31.984373 25.41214 4143405
11.187944 31.984373 25.417625 5130300
11.200571 31.97517 25.358191 5130812
11.213199 31.965967 25.354076 5656896
11.213199 31.965967 25.359104 4995891
11.213199 31.965967 25.364285 6841165
11.213199 31.965967 25.367943 5525822
11.213199 31.965967 25.372211 3617324
11.213199 31.965967 25.379528 4670515
11.213199 31.965967 25.385925 6118471
11.213199 31.965967 25.393852 3616808
11.213199 31.965967 25.402691 4143405
11.213199 31.965967 25.41153 4143405
11.213199 31.965967 25.421133 4405809
11.213199 31.965967 25.425247 4076844
11.224756 32.034882 25.364285 4999229
11.16162 32.080894 25.346302 5852481
11.16162 32.080894 25.347828 5263176
11.174248 32.071693 25.346149 7036493
11.17425 32.07169 25.348135 6445384
11.186874 32.062489 25.345848 7497038
11.186874 32.062492 25.348392 6642506
11.199501 32.053288 25.346304 7102539
11.199501 32.053288 25.347725 7431504
11.21106 32.122196 25.346405 5787460
11.21106 32.1222 25.347218 3159095
11.223686 32.113003 25.345591 6444351
11.223686 32.113003 25.347521 5787716
11.275266 31.998074 25.345148 7168073
11.275266 31.998074 25.348253 6379075
11.25001 32.016476 25.346119 6839368
11.25001 32.016476 25.348131 7628109
11.237383 32.025681 25.346001 7759437
11.237382 32.025688 25.347906 6707526
11.262638 32.007267 25.345594 7299403
11.262638 32.007271 25.348743 7825232
11.287893 31.988865 25.345922 6970953
11.287893 31.988865 25.34775 7168075
11.30052 31.979664 25.346455 6970952
11.300521 31.979662 25.347521 6971466
11.313148 31.970461 25.345692 6773576
11.313148 31.970463 25.349108 6641990
11.237383 32.025681 25.356056 1580063
11.237383 32.025681 25.362152 4340016
11.274195 32.076187 25.346001 8021328
11.274195 32.076187 25.349354 8087375
11.236313 32.103798 25.34417 6707526
11.236313 32.103798 25.346912 7298886
11.24894 32.094593 25.345161 7299147
11.248941 32.094593 25.349655 5391930
11.261568 32.085388 25.348438 7102024
11.286822 32.066986 25.346149 7101769
11.286822 32.066986 25.347065 7758927
11.29945 32.057781 25.342949 6575172
11.312077 32.048576 25.346607 7824978
11.312076 32.04858 25.348986 6181701
11.16055 32.159012 25.347828 3421497
11.173178 32.149811 25.346001 5260861
11.173179 32.149811 25.34897 4077104
11.185804 32.140606 25.346607 3290681
11.185805 32.140602 25.349199 5195067
11.198432 32.131405 25.347675 6904394
11.173178 32.149811 25.352398 3093302
11.185804 32.140606 25.353008 3159095
11.20999 32.200317 25.361546 3027509
11.235244 32.181911 25.352398 6641735
11.222616 32.191116 25.359104 3027509
11.222616 32.191116 25.375107 2895923
11.20999 32.200317 25.409702 1579034
11.235244 32.181911 25.3969 2830130
11.235244 32.181911 25.421894 2895923
11.222616 32.191116 25.401775 2895923
11.222616 32.191116 25.424637 3092532
11.184734 32.218723 25.388367 7498585
11.197362 32.209522 25.366421 2961716
11.197362 32.209522 25.382271 2764337
11.197362 32.209522 25.405434 2895923
11.197362 32.209522 25.430733 3092532
11.260498 32.163509 25.350061 5721409
11.273125 32.154305 25.348438 6641735
11.247871 32.17271 25.350775 4078392
11.285753 32.145103 25.345695 6772031
11.285753 32.145103 25.349354 6969410
11.29838 32.135899 25.345085 6903878
11.311007 32.126694 25.346912 7955535
11.260498 32.163506 25.357582 2896180
11.260498 32.163506 25.370079 2961716
11.260498 32.163506 25.389736 4801341
11.260498 32.163506 25.413666 2830130
11.247871 32.17271 25.363068 2961716
11.247871 32.17271 25.379833 2895923
11.247871 32.17271 25.400864 2764337
11.247871 32.17271 25.426163 2764337
11.285753 32.145103 25.354534 6904138
11.285753 32.145103 25.370995 3027509
11.285753 32.145103 25.374649 1974051
11.29838 32.135899 25.354534 6641736
11.311007 32.126694 25.381966 6706240
11.285753 32.145103 25.431648 1448475
11.311007 32.126694 25.410618 6641736
11.324704 32.039375 25.346302 7693394
11.324704 32.039371 25.347319 7233355
11.349958 32.020969 25.345543 7167561
11.349959 32.020969 25.347521 6970695
11.337332 32.030174 25.345695 7365452
11.337332 32.030174 25.347218 7496526
11.375214 32.002563 25.34478 7167047
11.375214 32.002563 25.348438 7955789
11.38784 31.993361 25.347368 6904389
11.362586 32.011768 25.345695 7825230
11.362586 32.011768 25.348133 6444354
11.323632 32.117493 25.348589 6509636
11.348888 32.099087 25.346201 7298638
11.348888 32.099087 25.348436 7035979
11.336262 32.108292 25.34803 7430222
11.374144 32.080681 25.346304 7167306
11.374144 32.080681 25.347523 7627601
11.38677 32.07148 25.34539 7430222
11.386771 32.071476 25.34897 6903877
11.361517 32.089878 25.349426 6837829
11.323634 32.117493 25.380745 2039332
11.38677 32.07148 25.371601 7232066
11.400468 31.984158 25.345846 6773062
11.400468 31.984159 25.347826 7036232
11.413095 31.974955 25.346001 6839112
11.413095 31.974955 25.347523 7298634
11.425722 31.965752 25.344627 6378563
11.425722 31.965752 25.347523 6181956
11.424652 32.043869 25.346504 7166793
11.424652 32.043873 25.348253 6575684
11.43728 32.034668 25.34527 6707270
11.43728 32.034668 25.348589 7364171
11.449906 32.025463 25.345591 6116677
11.449906 32.025463 25.347624 7232586
11.462533 32.016262 25.345491 5984835
11.462534 32.016262 25.347828 6246724
11.475161 32.007057 25.346302 4273451
11.475161 32.007057 25.353313 2368548
11.399398 32.062275 25.345591 6904391
11.399398 32.062279 25.348742 7166533
11.412025 32.053074 25.345594 7561033
11.412025 32.053074 25.348743 6051139
11.412025 32.053074 25.353008 2302755
11.423582 32.12199 25.376781 7232066
11.43621 32.112785 25.401169 1907995
11.410955 32.131191 25.398422 6902851
11.410955 32.131191 25.426769 7495238
11.562482 32.020756 25.200916 4272683
11.562482 32.020756 25.204979 4536110
11.562482 32.020756 25.209906 3880236
11.57511 32.011555 25.203453 4011051
11.562482 32.020756 25.219202 5522228
11.562482 32.020756 25.22987 3813929
11.575109 32.011555 25.217983 2763298
11.575109 32.011555 25.227127 5588020
11.562482 32.020756 25.233223 5785399
11.562482 32.020756 25.244501 5719091
11.562482 32.020756 25.247246 5653813
11.575109 32.011555 25.248917 2500643
11.562482 32.020756 25.255779 5522485
11.562482 32.020756 25.260044 4273448
11.562482 32.020756 25.269798 5719091
11.575109 32.011555 25.252731 5785399
11.575109 32.011555 25.259129 2039581
11.586666 32.080467 25.201523 4799280
11.586666 32.080467 25.205181 5127985
11.586666 32.080467 25.220573 4603698
11.586666 32.080467 25.227737 5653298
11.586666 32.080467 25.247246 5653300
11.586666 32.080467 25.252426 5653299
11.586666 32.080467 25.27132 5521972
11.574039 32.089672 25.211887 5653819
11.574039 32.089672 25.235355 5719606
11.574039 32.089672 25.259129 5785144
11.599294 32.071266 25.201828 1975328
11.599294 32.071266 25.214325 2960934
11.599294 32.071266 25.223774 1711642
11.599294 32.071266 25.228344 2566430
11.599294 32.071266 25.243282 3616808
11.599294 32.071266 25.256996 2498845
11.599294 32.071266 25.264008 2432536
11.636106 32.121773 25.243282 2568499
11.487789 31.997854 25.346001 4008733
11.487789 31.997854 25.347828 4800050
11.513042 31.979448 25.345491 5655098
11.500416 31.988649 25.345768 5260857
11.500416 31.988649 25.347725 4668976
11.52567 31.970245 25.345285 5588791
11.52567 31.970245 25.34742 5654841
11.537228 32.039162 25.345085 5655870
11.511972 32.057568 25.346001 5391677
11.511972 32.057568 25.348133 4273447
11.499346 32.066772 25.34996 5129534
11.486719 32.075974 25.376781 2039583
11.511972 32.057568 25.35499 5129018
11.524601 32.048367 25.360325 1447708
11.524601 32.048367 25.413971 1052949
11.587736 32.00235 25.337463 2171421
11.562482 32.020756 25.274675 3813931
11.562482 32.020756 25.281384 5587765
11.562482 32.020756 25.2826 5587765
11.575109 32.011555 25.276505 5587765
11.562482 32.020756 25.293116 5718837
11.562482 32.020756 25.29784 6047288
11.562482 32.020756 25.30851 5849909
11.575109 32.011555 25.294182 1711647
11.575109 32.011555 25.301804 5653811
11.575109 32.011555 25.309727 1645854
11.562482 32.020756 25.312469 6047031
11.562482 32.020756 25.319025 5981496
11.562482 32.020756 25.323444 5654841
11.562482 32.020756 25.327408 1579291
11.575109 32.011555 25.327713 5851190
11.562482 32.020756 25.333652 5785144
11.562483 32.020756 25.343746 5522743
11.562482 32.020756 25.348133 5326903
11.575109 32.011555 25.341122 1842202
11.612991 31.983944 25.346607 2960423
11.600364 31.993149 25.345539 2565408
11.600364 31.993149 25.348743 2236701
11.625618 31.974743 25.345234 2631972
11.625618 31.974743 25.351181 2039581
11.562482 32.020756 25.357887 5589307
11.562482 32.020756 25.369469 5325624
11.575109 32.011555 25.364285 1644825
11.562482 32.020756 25.376781 5457723
11.562482 32.020756 25.387146 5655102
11.575109 32.011555 25.38105 1382433
11.600364 31.993149 25.361851 1710870
11.612991 31.983944 25.397205 1382429
11.586666 32.080467 25.277115 5587765
11.586666 32.080467 25.293266 5521974
11.586666 32.080467 25.305307 5587765
11.586666 32.080467 25.320396 5457461
11.586666 32.080467 25.330151 5521715
11.586666 32.080467 25.346607 5455922
11.574039 32.089672 25.286869 5653560
11.574039 32.089672 25.310642 5521715
11.574039 32.089672 25.334721 5785657
11.599294 32.071266 25.276199 1645084
11.599294 32.071266 25.302414 2173228
11.599294 32.071266 25.311863 2501423
11.599294 32.071266 25.320702 1513500
11.599294 32.071266 25.325577 2764595
11.636106 32.121773 25.349655 1513500
11.586666 32.080467 25.353621 5390387
11.586666 32.080467 25.371296 5193009
11.586666 32.080467 25.378918 5193268
11.586666 32.080467 25.395683 5259578
11.586666 32.080467 25.402691 4272168
11.586666 32.080467 25.418236 4271909
11.574039 32.089672 25.36063 5324595
11.574039 32.089672 25.384403 4864303
11.574039 32.089672 25.409092 4205862
11.599294 32.071266 25.375565 1251609
11.599294 32.071266 25.403912 4207145
11.599294 32.071266 25.431343 1710357
11.636106 32.121773 25.40696 1185562
11.610851 32.140179 25.201828 3880237
11.610851 32.140179 25.204369 4406320
11.610851 32.140179 25.210972 5259829
11.610851 32.140179 25.212799 5588028
11.610851 32.140179 25.221336 2960934
11.610851 32.140179 25.225197 4208941
11.598225 32.149384 25.206097 5653821
11.598225 32.149384 25.211277 5588028
11.598225 32.149384 25.230175 5522484
11.623478 32.130978 25.205181 2697505
11.623478 32.130978 25.207008 4207402
11.610851 32.140179 25.238098 3682600
11.610851 32.140179 25.249224 5390641
11.610851 32.140179 25.259537 4667950
11.610851 32.140179 25.268734 2433051
11.598225 32.149384 25.236881 5522227
11.598225 32.149384 25.239624 5522227
11.598225 32.149384 25.256084 5719353
11.598225 32.149384 25.260349 5653813
11.623478 32.130978 25.232307 1447695
11.623478 32.130978 25.24968 1645854
11.623478 32.130978 25.264313 2169110
11.635034 32.19989 25.20508 2828836
11.635035 32.19989 25.209145 1906708
11.635035 32.19989 25.254105 1710873
11.622406 32.209095 25.206097 5456694
11.622406 32.209095 25.218899 5522487
11.622406 32.209095 25.232002 5654071
11.622406 32.209095 25.239929 5654071
11.622406 32.209095 25.242367 5522487
11.622406 32.209095 25.255779 5522484
11.622406 32.209095 25.26675 5719606
11.610851 32.140179 25.274065 4339760
11.610851 32.140179 25.2889 4339501
11.610851 32.140179 25.298603 5653301
11.610851 32.140179 25.310184 5455922
11.598225 32.149384 25.278942 5719093
11.598225 32.149384 25.285343 5587507
11.598225 32.149384 25.303936 5587507
11.623478 32.130978 25.301804 1579293
11.610851 32.140179 25.32324 4273455
11.610851 32.140179 25.336857 5258800
11.610851 32.140179 25.339447 3419175
11.610851 32.140179 25.348286 5456181
11.598225 32.149384 25.32832 5719353
11.598225 32.149384 25.338074 5587765
11.635035 32.19989 25.286564 5587507
11.635035 32.19989 25.310642 5522227
11.635035 32.19989 25.336246 5785659
11.610851 32.140179 25.358952 5324595
11.610851 32.140179 25.370995 5193522
11.610851 32.140179 25.374348 4931125
11.610851 32.140179 25.385014 4995891
11.610851 32.140179 25.390957 3156263
11.598225 32.149384 25.352398 5128243
11.598225 32.149384 25.378613 5391676
11.598225 32.149384 25.388062 4734516
11.623478 32.130978 25.371601 1447707
11.610851 32.140179 25.395988 4733746
11.610851 32.140179 25.399643 5063482
11.610851 32.140179 25.409245 4272938
11.610851 32.140179 25.420677 3417887
11.610851 32.140179 25.424332 3286301
11.610851 32.140179 25.429211 2892312
11.598225 32.149384 25.403606 4734516
11.623478 32.130978 25.424332 1185562
11.635035 32.19989 25.359104 5325622
11.635035 32.19989 25.384708 4800309
11.635035 32.19989 25.411224 3155742
11.622406 32.209095 25.280773 5588020
11.622406 32.209095 25.290829 5653813
11.622406 32.209095 25.292049 5653811
11.622406 32.209095 25.305763 5522227
11.622406 32.209095 25.315216 5587765
11.622406 32.209095 25.32954 5521972
11.622406 32.209095 25.339905 5325106
11.622406 32.209095 25.356056 5325876
11.622406 32.209095 25.364285 5062452
11.622406 32.209095 25.377697 4800309
11.622406 32.209095 25.389584 4800309
11.622406 32.209095 25.39233 3879208
11.622406 32.209095 25.404217 3616293
11.622406 32.209095 25.415493 2958363
11.622406 32.209095 25.42799 2892570
11.654082 31.721983 25.200916 2040862
11.654082 31.721983 25.204266 3817786
11.654082 31.721983 25.223164 2764070
11.66671 31.712782 25.203049 3159347
11.66671 31.71278 25.208839 3157803
11.66671 31.71278 25.220726 2895656
11.66671 31.71278 25.223774 10123634
11.654082 31.721983 25.237793 10123634
11.654082 31.721983 25.269493 15129033
11.66671 31.71278 25.233528 8747114
11.66671 31.71278 25.258522 3355952
11.679337 31.703577 25.208382 3224370
11.679337 31.703577 25.213108 6045505
11.679337 31.703577 25.23307 2764590
11.679337 31.703577 25.244499 15982285
11.679337 31.703577 25.249073 3289901
11.641456 31.731186 25.200203 3224626
11.641456 31.731186 25.203049 4145467
11.641455 31.731186 25.209145 4729134
11.641455 31.731186 25.21463 5588033
11.641455 31.731186 25.221031 3619646
11.641455 31.731186 25.224991 15847627
11.641455 31.731186 25.245415 6509131
11.641455 31.731186 25.257607 3750450
11.641455 31.731186 25.270864 9999751
11.653012 31.8001 25.199692 5590596
11.66564 31.790897 25.199997 5065021
11.66564 31.790897 25.202286 5066054
11.703522 31.763288 25.203655 2829608
11.703522 31.763288 25.218897 3485996
11.703522 31.763288 25.231548 4405816
11.703522 31.763288 25.234444 4666927
11.716148 31.754086 25.234138 1711131
11.703522 31.763288 25.269798 11111546
11.678267 31.781694 25.201828 4672067
11.678267 31.781694 25.202948 4474167
11.405175 34.378197 25.371601 7829860
11.678267 31.781694 25.20945 4864052
11.690894 31.772491 25.200912 4014651
11.690894 31.772491 25.202286 4605501
11.690894 31.772491 25.224686 4799540
11.75296 31.804594 25.214834 4144434
11.75296 31.804594 25.223772 4011823
11.75296 31.804594 25.22987 2960423
11.765588 31.795391 25.202744 5522485
11.765588 31.795391 25.215363 4802878
11.765588 31.795391 25.217373 6117195
11.765588 31.795391 25.227127 3421998
11.790842 31.776985 25.215696 3354665
11.790842 31.776985 25.217525 3552555
11.790842 31.776985 25.224384 3881008
11.790842 31.776985 25.228649 4274738
11.778214 31.786192 25.215899 3684141
11.765588 31.795391 25.246025 5060410
11.790842 31.776985 25.235661 8482130
11.790842 31.776985 25.24968 3684911
11.790842 31.776985 25.266445 4603703
11.778215 31.786188 25.248463 3618864
11.654082 31.721983 25.281384 3290153
11.654082 31.721983 25.302414 14672842
11.66671 31.71278 25.273457 15131851
11.66671 31.71278 25.278637 3553325
11.66671 31.71278 25.283516 14144188
11.654082 31.721983 25.333504 15265241
11.654082 31.721983 25.342342 4078386
11.66671 31.71278 25.322529 15265241
11.66671 31.71278 25.332741 9276032
11.679337 31.703577 25.277115 15328454
11.679337 31.703577 25.296619 2895144
11.679337 31.703577 25.304546 3552046
11.679337 31.703577 25.309116 14015171
11.679337 31.703577 25.312469 4144183
11.679337 31.703577 25.342037 14606549
11.66671 31.71278 25.374649 15065308
11.66671 31.71278 25.380135 15000543
11.66671 31.71278 25.384403 3815986
11.654082 31.721983 25.410618 3027240
11.66671 31.71278 25.399643 4473144
11.66671 31.71278 25.41153 14804436
11.66671 31.71278 25.423115 14739664
11.641455 31.731186 25.277725 15786446
11.641455 31.731186 25.310337 9144952
11.641455 31.731186 25.319176 14541256
11.641455 31.731186 25.326794 4934978
11.641455 31.731186 25.340816 15132112
11.703522 31.763288 25.282295 10453367
11.716148 31.754086 25.290527 1843485
11.703522 31.763288 25.294182 14736317
11.703522 31.763288 25.317348 10720132
11.703522 31.763288 25.346912 11050124
11.641456 31.731186 25.369368 11644068
11.641455 31.731186 25.373737 14736844
11.641455 31.731186 25.383492 4934465
11.641455 31.731186 25.387756 15131864
11.641455 31.731186 25.40559 14606799
11.641455 31.731186 25.413055 3355694
11.641455 31.731186 25.417324 14212551
11.641455 31.731186 25.422504 4277309
11.703522 31.763288 25.364746 15328986
11.703522 31.763288 25.379528 15000275
11.703522 31.763288 25.396595 14935260
11.703522 31.763288 25.401775 3684400
11.703522 31.763288 25.411531 9737351
11.703522 31.763288 25.415493 15198937
11.703522 31.763288 25.429516 14870232
11.75296 31.804594 25.274673 3224108
11.75296 31.804594 25.331978 3487281
11.765588 31.795391 25.277725 4861225
11.765588 31.795391 25.284122 3487280
11.765588 31.795391 25.310032 7756626
11.790842 31.776985 25.283817 11115141
11.790842 31.776985 25.305763 4013365
11.778215 31.786188 25.302414 3684400
11.765588 31.795391 25.343864 6116169
11.790842 31.776985 25.332588 15260603
11.75296 31.804594 25.391415 3290153
11.765588 31.795391 25.37587 15065290
11.790842 31.776985 25.364285 4013365
11.790842 31.776985 25.38166 13816242
11.778215 31.786188 25.36124 3749939
11.765588 31.795391 25.399948 3684146
11.765588 31.795391 25.40818 15263698
11.790842 31.776985 25.421894 4078386
11.790842 31.776985 25.429211 15130581
11.778215 31.786188 25.417019 3946804
11.640385 31.809303 25.201523 3617584
11.640384 31.809298 25.204268 2106144
11.640385 31.809303 25.223774 1250580
11.640385 31.809303 25.246632 1184533
11.651943 31.878218 25.203655 2105628
11.651943 31.878218 25.215393 1710874
11.651943 31.878218 25.224686 1842204
11.66457 31.869017 25.200407 4669754
11.66457 31.869017 25.202438 2763555
11.66457 31.869017 25.208534 1974300
11.66457 31.869015 25.220116 1250580
11.66457 31.869015 25.228649 1447446
11.651943 31.878218 25.239777 1907999
11.651943 31.878218 25.264313 1776413
11.66457 31.869015 25.232307 1315860
11.66457 31.869015 25.252731 1710620
11.66457 31.869015 25.257301 1907999
11.66457 31.869015 25.265686 1512728
11.702452 31.841406 25.200151 4802361
11.702453 31.841402 25.203711 5591878
11.715078 31.832203 25.200302 4868155
11.715079 31.832205 25.203707 5657155
11.715079 31.832201 25.211275 4340529
11.715078 31.832203 25.212799 3750191
11.677197 31.85981 25.201014 4473400
11.677197 31.859812 25.203535 4079413
11.677197 31.859812 25.207771 2302752
11.689824 31.850609 25.201523 4999482
11.689824 31.850609 25.204269 5722434
11.639316 31.887421 25.209145 2369836
11.639316 31.887421 25.224079 2302242
11.639316 31.887421 25.248158 1907999
11.639316 31.887421 25.27132 1973277
11.676126 31.937929 25.200836 3288363
11.676127 31.937931 25.203657 2303521
11.676127 31.937931 25.208534 1645856
11.676127 31.937931 25.212189 2236449
11.676127 31.937931 25.218288 2302242
11.676127 31.937931 25.222553 2236962
11.676127 31.937931 25.228344 2236964
11.6635 31.947134 25.204422 1711389
11.6635 31.947134 25.218288 1776411
11.6635 31.947134 25.222252 1382684
11.6635 31.947134 25.228043 5063230
11.676127 31.937931 25.238708 1907999
11.676127 31.937931 25.245565 1842206
11.676127 31.937931 25.252426 1710620
11.676127 31.937931 25.264313 1907742
11.676127 31.937931 25.270712 1776157
11.6635 31.947134 25.247246 1381401
11.6635 31.947134 25.256996 1644827
11.6635 31.947134 25.271019 1579291
11.701383 31.919525 25.199997 4933179
11.701383 31.919525 25.203711 4802364
11.701382 31.919525 25.207924 3156258
11.714007 31.91032 25.200302 5460292
11.714008 31.910322 25.20315 5591619
11.701382 31.919525 25.21981 3748394
11.688755 31.928728 25.201218 3158568
11.727706 31.823 25.204268 3158570
11.727706 31.823 25.216152 6050879
11.727706 31.823 25.21981 3223855
11.740334 31.813797 25.210667 3553071
11.740334 31.813793 25.215544 4999227
11.740334 31.813797 25.218287 3815468
11.740334 31.813797 25.222858 3155742
11.740334 31.813797 25.267056 2500645
11.75189 31.882713 25.201218 5985086
11.75189 31.882713 25.210667 4010794
11.751891 31.882717 25.214249 5196348
11.75189 31.882713 25.229259 4338737
11.764518 31.873508 25.215467 5984832
11.764518 31.87351 25.218086 6050625
11.777145 31.864307 25.215424 6642247
11.777145 31.864307 25.217373 6642504
11.789772 31.855104 25.215645 6840138
11.789772 31.855104 25.219507 6049604
11.789772 31.855104 25.221947 5719615
11.764518 31.87351 25.234444 4666663
11.739264 31.891916 25.189941 2762015
11.726636 31.901119 25.201523 4867896
11.726636 31.901121 25.202539 5263167
11.739264 31.891912 25.200914 5393982
11.739264 31.891916 25.203199 4143150
11.739264 31.891916 25.217678 4338991
11.75082 31.960831 25.202642 5261887
11.776075 31.942425 25.209293 4406835
11.776075 31.942425 25.213867 5787970
11.776075 31.942425 25.217068 4208180
11.763448 31.951628 25.212494 4012082
11.788703 31.933224 25.215773 5721661
11.651943 31.878218 25.273457 1775898
11.651943 31.878218 25.289307 1775898
11.651943 31.878218 25.311863 2432023
11.66457 31.869015 25.279552 1381141
11.66457 31.869015 25.288391 1512980
11.66457 31.869015 25.303175 2169108
11.651943 31.878218 25.312164 2037265
11.651943 31.878218 25.322071 2497558
11.651943 31.878218 25.334721 3812645
11.66457 31.869015 25.31826 2432021
11.66457 31.869015 25.325882 2300443
11.66457 31.869015 25.329235 2760735
11.639316 31.887421 25.295403 2103834
12.549974 33.853203 25.637691 3228738
12.549974 33.853203 25.643787 2764597
12.315409 33.63747 25.829109 1645852
12.601553 33.738274 25.922073 2633779
12.601553 33.738274 25.947067 2961974
11.676127 31.937931 25.27803 1973277
11.676127 31.937931 25.284428 2104349
11.676127 31.937931 25.294338 1906454
11.676127 31.937931 25.300278 1971989
11.676127 31.937931 25.309727 2760734
11.6635 31.947134 25.295708 1578003
11.6635 31.947134 25.306679 2432282
11.676127 31.937931 25.313995 2037524
11.676127 31.937931 25.320089 2694940
11.676127 31.937931 25.324966 3287078
11.676127 31.937931 25.336552 3221539
11.6635 31.947134 25.320396 2169110
11.740334 31.813797 25.324055 2763815
11.740334 31.813797 25.383186 3487791
